# .PCD v0.7 - Point Cloud Data file format
VERSION 0.7
FIELDS x y z intensity
SIZE 4 4 4 4
TYPE F F F F
COUNT 1 1 1 1
WIDTH 1436
HEIGHT 1
VIEWPOINT 0 0 0 1 0 0 0
POINTS 1436
DATA ascii
9.1429996 0.72799999 -1.651 0
9.1409998 0.699 -1.65 0
9.1429996 0.671 -1.65 0
9.1490002 0.64200002 -1.651 0
9.1389999 0.61299998 -1.649 0
9.1339998 0.56900001 -1.647 0
9.1379995 0.54100001 -1.648 0
9.118 0.51099998 -1.6440001 0
9.1470003 0.48300001 -1.649 0
9.1149998 0.45300001 -1.642 0
9.1440001 0.426 -1.648 0
9.1190004 0.41 -1.643 0
9.1129999 0.38100001 -1.641 0
9.1059999 0.352 -1.64 0
9.1129999 0.324 -1.641 0
9.1120005 0.29499999 -1.641 0
9.1169996 0.26699999 -1.641 0
9.1079998 0.23800001 -1.6390001 0
9.0939999 0.223 -1.637 0.039999999
9.0869999 0.19400001 -1.635 0.039999999
9.1029997 0.16599999 -1.638 0.039999999
9.1099997 0.13699999 -1.6390001 0.07
9.1040001 0.109 -1.638 0.039999999
9.1140003 0.079999998 -1.64 0.07
9.1110001 0.052000001 -1.6390001 0.039999999
9.1169996 0.0089999996 -1.641 0.039999999
9.1169996 -0.02 -1.641 0.07
9.1219997 -0.048999999 -1.642 0.039999999
9.1239996 -0.077 -1.642 0.07
9.1260004 -0.106 -1.642 0.039999999
9.1370001 -0.13500001 -1.645 0.07
9.1389999 -0.149 -1.645 0.039999999
9.1420002 -0.178 -1.646 0.15000001
9.1359997 -0.207 -1.645 0.07
9.1450005 -0.235 -1.647 0.039999999
9.1440001 -0.264 -1.647 0.07
9.1490002 -0.29300001 -1.648 0.039999999
9.1479998 -0.336 -1.648 0.039999999
9.1470003 -0.36500001 -1.648 0.07
0 0 0 0
9.1549997 -0.39399999 -1.65 0.039999999
9.1459999 -0.42199999 -1.648 0.07
9.1470003 -0.45100001 -1.649 0.039999999
9.1569996 -0.48100001 -1.651 0.059999999
9.1529999 -0.52399999 -1.65 0
9.1630001 -0.55299997 -1.653 0
9.1610003 -0.58200002 -1.653 0
9.1590004 -0.611 -1.653 0
9.1610003 -0.63999999 -1.654 0
9.1569996 -0.66799998 -1.653 0
9.1709995 -0.69800001 -1.656 0
9.2010002 -0.71499997 -1.6619999 0
9.177 -0.74199998 -1.658 0
9.1920004 -0.77200001 -1.661 0
9.2049999 -0.80299997 -1.665 0
9.2049999 -0.83200002 -1.665 0
9.2040005 -0.861 -1.665 0
9.1940002 -0.90399998 -1.664 0
9.2030001 -0.93400002 -1.666 0
9.2080002 -0.963 -1.668 0
9.158 -0.98699999 -1.659 0
0 0 0 0
9.1899996 -1.02 -1.666 0
9.1850004 -1.049 -1.665 0
9.1459999 -1.073 -1.658 0
9.1450005 -1.102 -1.659 0
9.1450005 -1.146 -1.66 0
9.1300001 -1.173 -1.658 0
9.1300001 -1.2029999 -1.658 0
9.1129999 -1.229 -1.656 0
9.1199999 -1.26 -1.658 0
9.1260004 -1.29 -1.66 0.039999999
9.1160002 -1.303 -1.658 0.07
9.1219997 -1.3329999 -1.66 0.039999999
9.1350002 -1.364 -1.664 0.07
9.1190004 -1.391 -1.661 0.039999999
9.1400003 -1.424 -1.666 0.07
9.1300001 -1.451 -1.665 0.039999999
9.1309996 -1.4809999 -1.666 0.07
9.2010002 -1.5369999 -1.682 0.15000001
9.198 -1.566 -1.682 0.079999998
9.1949997 -1.595 -1.682 0.079999998
0 0 0 0
9.1239996 -1.613 -1.669 0.090000004
9.1479998 -1.646 -1.675 0.079999998
9.0209999 -1.668 -1.652 0.090000004
8.9230003 -1.679 -1.633 0.090000004
8.823 -1.689 -1.615 0.07
8.6859999 -1.692 -1.589 0.039999999
8.5629997 -1.696 -1.566 0.16
8.5249996 -1.716 -1.559 0.16
8.5100002 -1.7410001 -1.557 0.15000001
8.5030003 -1.768 -1.557 0.07
8.5080004 -1.783 -1.558 0.039999999
8.5039997 -1.8099999 -1.559 0.07
8.5749998 -1.853 -1.574 0.050000001
8.6379995 -1.895 -1.5880001 0.18000001
8.6149998 -1.918 -1.584 0.11
8.6049995 -1.944 -1.584 0.2
8.6049995 -1.987 -1.585 0.18000001
8.6009998 -2.0139999 -1.586 0.12
8.6160002 -2.046 -1.59 0.16
0 0 0 0
8.6190004 -2.076 -1.592 0.11
8.6079998 -2.102 -1.591 0.18000001
8.6230001 -2.1340001 -1.595 0.090000004
8.6260004 -2.1630001 -1.597 0.2
8.6859999 -2.2219999 -1.6109999 0.050000001
8.6879997 -2.2509999 -1.613 0.14
8.6960001 -2.283 -1.6160001 0.050000001
8.6739998 -2.306 -1.613 0.14
8.691 -2.3399999 -1.618 0.050000001
8.6990004 -2.3710001 -1.6210001 0.16
8.7069998 -2.388 -1.623 0.050000001
8.6669998 -2.4059999 -1.617 0.14
8.6389999 -2.428 -1.613 0.050000001
8.6719999 -2.467 -1.6210001 0.13
8.7460003 -2.517 -1.638 0.050000001
8.6700001 -2.5250001 -1.624 0.14
8.6450005 -2.5469999 -1.62 0.050000001
8.6370001 -2.589 -1.6210001 0.090000004
8.6359997 -2.618 -1.623 0.2
8.618 -2.6429999 -1.6210001 0.15000001
0 0 0 0
8.6330004 -2.677 -1.625 0.050000001
8.4630003 -2.654 -1.5930001 0.11
8.3699999 -2.654 -1.576 0
8.4060001 -2.7090001 -1.585 0
8.3269997 -2.7119999 -1.571 0.039999999
8.2530003 -2.717 -1.558 0.059999999
8.1599998 -2.7149999 -1.541 0
8.0179996 -2.6960001 -1.513 0
7.9359999 -2.697 -1.498 0
7.875 -2.6900001 -1.487 0
0 0 0 0
8.698 -3.03 -1.659 0
8.6569996 -3.046 -1.652 0
8.6420002 -3.0710001 -1.651 0
8.6789999 -3.115 -1.661 0.039999999
8.6560001 -3.1370001 -1.658 0.079999998
8.6280003 -3.1730001 -1.655 0.14
8.625 -3.2030001 -1.6569999 0
8.6079998 -3.2279999 -1.655 0.039999999
8.6029997 -3.257 -1.6569999 0.18000001
8.5640001 -3.273 -1.65 0.16
8.5810003 -3.3099999 -1.656 0.050000001
0 0 0 0
8.5139999 -3.3310001 -1.646 0.12
8.5249996 -3.3659999 -1.65 0.18000001
8.5600004 -3.411 -1.66 0.11
8.5129995 -3.4230001 -1.652 0.16
8.5129995 -3.454 -1.654 0.050000001
8.5039997 -3.4820001 -1.655 0.17
8.4989996 -3.5109999 -1.656 0.11
8.4709997 -3.5150001 -1.651 0.17
8.4860001 -3.552 -1.6569999 0.050000001
8.4829998 -3.582 -1.658 0.17
8.4809999 -3.6129999 -1.66 0.13
8.4729996 -3.641 -1.661 0.17
8.4659996 -3.6689999 -1.6619999 0.23
8.4320002 -3.7019999 -1.658 0.11
8.4180002 -3.7279999 -1.658 0.14
8.4029999 -3.753 -1.6569999 0.039999999
8.4060001 -3.7850001 -1.66 0.20999999
8.4099998 -3.819 -1.664 0.15000001
8.3830004 -3.839 -1.661 0.079999998
8.3620005 -3.8610001 -1.659 0.07
8.3439999 -3.869 -1.656 0.039999999
8.3330002 -3.8959999 -1.6569999 0.059999999
8.3120003 -3.918 -1.655 0
8.2790003 -3.934 -1.65 0
8.257 -3.9549999 -1.648 0
8.2410002 -3.98 -1.647 0
8.2220001 -4.0019999 -1.646 0
8.2089996 -4.0279999 -1.646 0
8.1730003 -4.026 -1.6390001 0
8.1619997 -4.053 -1.64 0.039999999
8.1700001 -4.0890002 -1.6440001 0.15000001
8.1700001 -4.1199999 -1.647 0.07
8.1569996 -4.1459999 -1.647 0.039999999
8.118 -4.1750002 -1.643 0.13
8.0279999 -4.1609998 -1.626 0.029999999
7.9970002 -4.177 -1.622 0
7.9860001 -4.2030001 -1.623 0
7.9239998 -4.2020001 -1.612 0.039999999
7.8860002 -4.2140002 -1.607 0.07
7.8039999 -4.2020001 -1.592 0.039999999
0 0 0 0
7.698 -4.1919999 -1.573 0.039999999
7.6500001 -4.197 -1.5650001 0.079999998
7.585 -4.1929998 -1.554 0.039999999
7.5170002 -4.1859999 -1.541 0.07
7.4400001 -4.1750002 -1.527 0.029999999
7.381 -4.1719999 -1.517 0.029999999
7.3270001 -4.1719999 -1.508 0
7.2859998 -4.164 -1.5 0
0 0 0 0
7.9369998 -4.5999999 -1.652 0
7.921 -4.6240001 -1.651 0
7.921 -4.658 -1.655 0
7.8800001 -4.6659999 -1.649 0.15000001
7.8039999 -4.671 -1.636 0.14
7.7800002 -4.691 -1.635 0.039999999
7.7270002 -4.6919999 -1.626 0.18000001
7.711 -4.7150002 -1.625 0.16
7.6820002 -4.7309999 -1.622 0.20999999
7.6459999 -4.7420001 -1.617 0.18000001
7.6139998 -4.756 -1.614 0.079999998
7.5869999 -4.7550001 -1.609 0.090000004
7.5570002 -4.7690001 -1.6059999 0.090000004
7.5679998 -4.8099999 -1.612 0.07
7.5300002 -4.8189998 -1.6059999 0.050000001
7.5149999 -4.8429999 -1.6059999 0.17
7.4899998 -4.8600001 -1.604 0.050000001
7.4530001 -4.869 -1.599 0.15000001
7.4460001 -4.8979998 -1.601 0.090000004
7.428 -4.9029999 -1.599 0.2
7.414 -4.928 -1.599 0.15000001
7.4219999 -4.9660001 -1.604 0.050000001
7.3860002 -4.9759998 -1.6 0.14
7.3759999 -5.0029998 -1.601 0.039999999
7.3340001 -5.0250001 -1.597 0.039999999
7.3559999 -5.0739999 -1.6059999 0.07
7.3150001 -5.0799999 -1.6 0.039999999
7.27 -5.0830002 -1.5930001 0.07
7.277 -5.1220002 -1.598 0.039999999
7.277 -5.1560001 -1.602 0.079999998
7.2540002 -5.1739998 -1.601 0.079999998
7.2509999 -5.2059999 -1.604 0.07
7.2270002 -5.2059999 -1.6 0.029999999
7.2259998 -5.2399998 -1.604 0.039999999
7.2080002 -5.2620001 -1.603 0.059999999
7.198 -5.289 -1.605 0
7.1859999 -5.3150001 -1.6059999 0
7.1859999 -5.3499999 -1.61 0
7.1630001 -5.368 -1.609 0
7.152 -5.3769999 -1.608 0
7.1550002 -5.415 -1.613 0
7.1240001 -5.427 -1.609 0
7.0739999 -5.4239998 -1.601 0
7.0630002 -5.4510002 -1.603 0
7.0599999 -5.4840002 -1.6059999 0
7.0149999 -5.4850001 -1.6 0
6.9920001 -5.52 -1.6 0
6.9699998 -5.5380001 -1.599 0
6.9219999 -5.5359998 -1.592 0.039999999
6.8590002 -5.5209999 -1.58 0.059999999
6.809 -5.5159998 -1.572 0
6.7870002 -5.5339999 -1.571 0
6.777 -5.5430002 -1.571 0
6.796 -5.5939999 -1.58 0
6.7810001 -5.618 -1.581 0
6.7789998 -5.652 -1.584 0
6.7399998 -5.6560001 -1.579 0
6.7119999 -5.6680002 -1.576 0
6.6760001 -5.6739998 -1.572 0
6.6490002 -5.6690001 -1.567 0
6.6279998 -5.6869998 -1.566 0
6.5830002 -5.6849999 -1.5599999 0
6.5539999 -5.6960001 -1.557 0
6.5180001 -5.7010002 -1.552 0
6.487 -5.7090001 -1.549 0
6.415 -5.7010002 -1.5369999 0
6.3829999 -5.7080002 -1.533 0
6.3390002 -5.7049999 -1.527 0
6.2989998 -5.7049999 -1.521 0
6.2620001 -5.7069998 -1.516 0
6.2210002 -5.7059999 -1.51 0
6.1820002 -5.7069998 -1.5039999 0
6.145 -5.6900001 -1.497 0
6.1040001 -5.6880002 -1.4910001 0
6.0570002 -5.6799998 -1.483 0
6.0219998 -5.6830001 -1.479 0
5.9980001 -5.697 -1.477 0
5.9359999 -5.6729999 -1.465 0
5.921 -5.6950002 -1.466 0
5.862 -5.6739998 -1.455 0
5.8660002 -5.6950002 -1.4579999 0
5.803 -5.6700001 -1.446 0
5.8099999 -5.7129998 -1.4529999 0
6.2589998 -6.1900001 -1.58 0
6.3410001 -6.3099999 -1.608 0
6.2859998 6.25 -1.6950001 0.17
6.302 6.2280002 -1.6950001 0.050000001
6.323 6.2090001 -1.6950001 0.18000001
6.3340001 6.1810002 -1.693 0.090000004
6.3429999 6.1700001 -1.692 0.19
6.3610001 6.1490002 -1.692 0.18000001
6.369 6.118 -1.689 0.12
6.3920002 6.1020002 -1.6900001 0.18000001
6.4099998 6.0799999 -1.689 0.11
6.4159999 6.0479999 -1.686 0.19
6.4349999 6.0279999 -1.686 0.11
6.4380002 5.993 -1.681 0.20999999
6.4530001 5.9879999 -1.683 0.12
6.4679999 5.9640002 -1.682 0.20999999
6.4829998 5.941 -1.681 0.25
6.5040002 5.9219999 -1.681 0.2
6.513 5.8940001 -1.679 0.20999999
6.5229998 5.8649998 -1.677 0.12
6.546 5.8309999 -1.675 0.25
6.5619998 5.8070002 -1.675 0.22
6.5679998 5.776 -1.671 0.22
6.585 5.7540002 -1.671 0.25
6.6059999 5.7360001 -1.6720001 0.18000001
6.619 5.7119999 -1.671 0.25
6.6370001 5.691 -1.671 0.18000001
6.6389999 5.6739998 -1.669 0.27000001
6.638 5.638 -1.664 0.18000001
6.6560001 5.6170001 -1.664 0.25
6.677 5.599 -1.665 0.23
6.6939998 5.5780001 -1.665 0.22
6.7030001 5.5489998 -1.6619999 0.28
6.7150002 5.5240002 -1.661 0.25
6.7319999 5.52 -1.663 0.25999999
6.743 5.494 -1.661 0.2
6.7529998 5.467 -1.659 0.25
6.7670002 5.4429998 -1.658 0.25
6.7810001 5.4190001 -1.658 0.22
6.7930002 5.3940001 -1.656 0.25
6.8010001 5.3660002 -1.654 0.28
6.8119998 5.323 -1.65 0.25
6.8429999 5.3119998 -1.654 0.23
6.8530002 5.2859998 -1.652 0.23
6.8709998 5.2649999 -1.653 0.2
6.8779998 5.237 -1.65 0.20999999
6.8990002 5.2189999 -1.652 0.12
6.914 5.2119999 -1.653 0.20999999
6.915 5.1789999 -1.649 0.23
6.9289999 5.1560001 -1.649 0.19
6.9450002 5.1339998 -1.649 0.22
6.9759998 5.1230001 -1.652 0.2
6.9790001 5.092 -1.649 0.20999999
6.9949999 5.0700002 -1.649 0.19
7.0029998 5.0419998 -1.647 0.22
7.0110002 5.0310001 -1.647 0.18000001
7.027 5.0089998 -1.647 0.1
7.0409999 4.9860001 -1.647 0.20999999
7.0549998 4.9619999 -1.646 0.18000001
7.0619998 4.9349999 -1.6440001 0.1
7.0760002 4.9109998 -1.6440001 0.19
7.0929999 4.8740001 -1.642 0.050000001
7.1100001 4.8520002 -1.643 0.19
7.1230001 4.829 -1.642 0.11
7.1329999 4.803 -1.641 0.18000001
7.1500001 4.7820001 -1.642 0.1
7.1570001 4.7540002 -1.64 0.2
7.1620002 4.7249999 -1.637 0.18000001
7.171 4.7150002 -1.638 0.1
7.178 4.6869998 -1.636 0.2
7.184 4.6589999 -1.6339999 0.20999999
7.1999998 4.638 -1.6339999 0.1
7.2049999 4.6090002 -1.632 0.19
7.2129998 4.5819998 -1.63 0.11
7.2189999 4.5539999 -1.628 0.19
7.224 4.5409999 -1.628 0.11
7.23 4.5139999 -1.626 0.20999999
7.243 4.4899998 -1.625 0.13
7.2449999 4.46 -1.622 0.18000001
7.2610002 4.4380002 -1.623 0.25999999
7.2709999 4.4130001 -1.622 0.19
7.2750001 4.369 -1.618 0.25
7.2740002 4.3369999 -1.614 0.27000001
7.289 4.3150001 -1.615 0.44999999
7.2839999 4.2810001 -1.61 0.31999999
7.2989998 4.2600002 -1.6109999 0.30000001
7.3049998 4.2329998 -1.609 0.31
7.3270001 4.2150002 -1.6109999 0.22
7.3470001 4.211 -1.614 0.25
7.3520002 4.1830001 -1.612 0.30000001
7.3740001 4.165 -1.614 0.30000001
7.3610001 4.1269999 -1.608 0.30000001
7.3639998 4.098 -1.6059999 0.37
7.3889999 4.0819998 -1.609 0.23
7.395 4.0549998 -1.607 0.25
7.3990002 4.027 -1.605 0.30000001
7.415 4.0209999 -1.607 0.27000001
7.4229999 3.9949999 -1.6059999 0.28999999
7.4320002 3.9690001 -1.605 0.28999999
7.4580002 3.9530001 -1.609 0.28999999
7.467 3.928 -1.608 0.28999999
7.4780002 3.904 -1.607 0.30000001
7.4959998 3.868 -1.607 0.27000001
7.5240002 3.8529999 -1.6109999 0.27000001
7.5310001 3.8269999 -1.61 0.28
7.5409999 3.802 -1.609 0.31999999
7.5539999 3.779 -1.61 0.30000001
7.5679998 3.756 -1.61 0.27000001
7.5900002 3.7379999 -1.613 0.31
7.5869999 3.721 -1.6109999 0.28
7.5939999 3.6949999 -1.609 0.28
7.618 3.677 -1.612 0.28999999
7.6240001 3.651 -1.6109999 0.28
7.6339998 3.6259999 -1.6109999 0.28999999
7.6570001 3.608 -1.613 0.28
7.6560001 3.5780001 -1.6109999 0.28
7.6869998 3.5769999 -1.6160001 0.28
7.6869998 3.5480001 -1.614 0.28
7.6929998 3.5220001 -1.613 0.25999999
7.704 3.497 -1.613 0.28
7.711 3.4719999 -1.612 0.27000001
7.7129998 3.4430001 -1.61 0.28999999
7.7470002 3.415 -1.614 0.30000001
7.7579999 3.3900001 -1.614 0.25999999
7.7600002 3.362 -1.612 0.25
7.7670002 3.336 -1.6109999 0.28999999
7.7789998 3.313 -1.6109999 0.25
7.7870002 3.2869999 -1.6109999 0.25
7.803 3.2650001 -1.612 0.28999999
7.8060002 3.2520001 -1.612 0.2
7.829 3.233 -1.615 0.27000001
7.8410001 3.2090001 -1.615 0.28
7.849 3.184 -1.615 0.27000001
7.8410001 3.152 -1.6109999 0.28
7.8639998 3.132 -1.613 0.28999999
7.868 3.105 -1.612 0.28999999
0 0 0 0
7.8860002 3.069 -1.613 0.28
7.9000001 3.046 -1.614 0.31
7.9050002 3.02 -1.613 0.28999999
7.9239998 2.9979999 -1.615 0.25999999
7.921 2.9690001 -1.612 0.28
7.9299998 2.944 -1.612 0.31999999
7.9580002 2.9119999 -1.615 0.28999999
7.9689999 2.8870001 -1.6160001 0.30000001
7.9710002 2.8599999 -1.614 0.27000001
7.9650002 2.8299999 -1.6109999 0.30000001
7.9959998 2.812 -1.6160001 0.30000001
8.0050001 2.7869999 -1.6160001 0.30000001
8.0080004 2.7739999 -1.615 0.31
8.0139999 2.7479999 -1.615 0.31
8.0209999 2.7219999 -1.615 0.30000001
8.0389996 2.7 -1.617 0.28999999
8.0380001 2.6719999 -1.615 0.27000001
8.0480003 2.6470001 -1.615 0.28999999
8.0509996 2.6199999 -1.614 0.30000001
8.059 2.595 -1.614 0.30000001
8.0839996 2.5610001 -1.617 0.30000001
0 0 0 0
8.085 2.533 -1.615 0.30000001
8.0889997 2.507 -1.614 0.30000001
8.1009998 2.4820001 -1.615 0.28999999
8.118 2.46 -1.617 0.33000001
8.118 2.4319999 -1.615 0.27000001
8.1479998 2.3989999 -1.619 0.28
8.1409998 2.369 -1.6160001 0.30000001
8.1569996 2.346 -1.618 0.28999999
8.1630001 2.3199999 -1.618 0.27000001
8.1700001 2.2939999 -1.618 0.30000001
8.177 2.2690001 -1.618 0.27000001
8.1870003 2.257 -1.619 0.28
8.1899996 2.2309999 -1.618 0.27000001
8.2019997 2.2060001 -1.619 0.30000001
8.198 2.178 -1.617 0.28
8.2139997 2.154 -1.619 0.30000001
8.217 2.128 -1.618 0.30000001
8.2279997 2.1029999 -1.619 0.31
8.2410002 2.0650001 -1.62 0.28999999
8.2419996 2.0380001 -1.619 0.28
0 0 0 0
8.2559996 2.013 -1.62 0.28
8.2620001 1.988 -1.62 0.25999999
8.2609997 1.96 -1.619 0.30000001
8.2629995 1.933 -1.618 0.27000001
8.2819996 1.896 -1.62 0.27000001
8.2700005 1.8660001 -1.6160001 0.28
8.2930002 1.844 -1.62 0.25
8.2919998 1.816 -1.618 0.30000001
8.3050003 1.7920001 -1.62 0.20999999
8.316 1.767 -1.6210001 0.25
8.3140001 1.739 -1.619 0.28999999
8.3240004 1.728 -1.6210001 0.27000001
8.3219995 1.7 -1.619 0.28999999
8.3269997 1.674 -1.619 0.28999999
8.3380003 1.649 -1.6210001 0.30000001
8.349 1.624 -1.622 0.27000001
8.3450003 1.596 -1.62 0.27000001
8.3500004 1.5700001 -1.62 0.28
8.3590002 1.531 -1.62 0.28
0 0 0 0
8.3699999 1.505 -1.6210001 0.27000001
8.3800001 1.48 -1.623 0.27000001
8.3690004 1.451 -1.619 0.30000001
8.3909998 1.428 -1.623 0.28999999
8.3859997 1.4 -1.6210001 0.27000001
8.4020004 1.362 -1.623 0.27000001
8.3769999 1.331 -1.617 0.27000001
8.401 1.307 -1.6210001 0.27000001
8.3990002 1.28 -1.62 0.28
8.4090004 1.255 -1.6210001 0.25
8.4130001 1.228 -1.6210001 0.30000001
8.4219999 1.216 -1.623 0.50999999
8.4359999 1.191 -1.625 0.31999999
8.4429998 1.165 -1.626 0.34999999
8.4469995 1.138 -1.626 0.34999999
8.4639997 1.114 -1.628 0.23999999
8.46 1.086 -1.627 0.19
8.4650002 1.0599999 -1.627 0.23999999
8.4720001 1.02 -1.628 0.2
8.4829998 0.99400002 -1.6289999 0.23
0 0 0 0
8.4919996 0.96799999 -1.63 0.25999999
8.4809999 0.94 -1.628 0.18000001
8.4980001 0.91500002 -1.63 0.22
8.5080004 0.875 -1.632 0.2
8.5129995 0.84899998 -1.632 0.2
8.5209999 0.82300001 -1.633 0.11
8.5310001 0.79699999 -1.635 0.19
8.5340004 0.76999998 -1.635 0.20999999
8.5340004 0.74299997 -1.6339999 0.18000001
8.5459995 0.71700001 -1.636 0.11
8.533 0.68900001 -1.633 0.2
8.5500002 0.67699999 -1.636 0.11
8.5419998 0.64899999 -1.6339999 0.2
8.54 0.62199998 -1.6339999 0.11
8.5360003 0.59500003 -1.632 0.2
8.5530005 0.56900001 -1.636 0.12
8.5530005 0.542 -1.635 0.2
8.5450001 0.514 -1.633 0.23
8.54 0.47400001 -1.632 0.23999999
8.5389996 0.447 -1.631 0.20999999
8.5270004 0.419 -1.628 0.20999999
0 0 0 0
8.5380001 0.39300001 -1.63 0.25
8.533 0.366 -1.6289999 0.20999999
8.5290003 0.32499999 -1.628 0.13
8.5279999 0.29899999 -1.628 0.20999999
8.5030003 0.271 -1.622 0.20999999
8.5179996 0.245 -1.625 0.28
8.5150003 0.21799999 -1.624 0.2
8.5170002 0.191 -1.625 0.23
8.5240002 0.164 -1.626 0.27000001
8.5159998 0.138 -1.624 0.20999999
8.5340004 0.124 -1.628 0.25
8.5209999 0.097000003 -1.625 0.25
8.5209999 0.071000002 -1.625 0.28999999
8.5290003 0.044 -1.627 0.18000001
8.5450001 0.017000001 -1.63 0.25
8.5270004 -0.0099999998 -1.626 0.27000001
8.5369997 -0.050000001 -1.628 0.25999999
8.5410004 -0.077 -1.6289999 0.28
8.54 -0.104 -1.6289999 0.31
8.5620003 -0.131 -1.6339999 0.25999999
8.5450001 -0.15700001 -1.63 0.27000001
0 0 0 0
8.5410004 -0.184 -1.63 0.28
8.5419998 -0.211 -1.63 0.28999999
8.559 -0.252 -1.6339999 0.30000001
8.5640001 -0.27900001 -1.635 0.25999999
8.5609999 -0.30599999 -1.6339999 0.28999999
8.5640001 -0.333 -1.635 0.28999999
8.5670004 -0.36000001 -1.636 0.25999999
8.552 -0.38600001 -1.633 0.23
8.5690002 -0.40000001 -1.637 0.27000001
8.5640001 -0.42699999 -1.636 0.19
8.5600004 -0.454 -1.636 0.23999999
8.5749998 -0.48199999 -1.6390001 0.27000001
8.5710001 -0.509 -1.638 0.19
8.5690002 -0.53600001 -1.638 0.20999999
8.5790005 -0.56300002 -1.641 0.25999999
8.5769997 -0.60399997 -1.641 0.23999999
8.5880003 -0.63200003 -1.6440001 0.23999999
8.5880003 -0.65899998 -1.6440001 0.20999999
8.5819998 -0.685 -1.643 0.22
8.5799999 -0.71200001 -1.643 0.23
0 0 0 0
8.573 -0.75199997 -1.642 0.23
8.5839996 -0.78100002 -1.645 0.2
8.5830002 -0.80800003 -1.646 0.23999999
8.5830002 -0.83499998 -1.646 0.18000001
8.5740004 -0.861 -1.645 0.20999999
8.5790005 -0.889 -1.646 0.19
8.573 -0.91600001 -1.646 0.22
8.5649996 -0.92799997 -1.6440001 0.19
8.5699997 -0.95599997 -1.646 0.23
8.5649996 -0.98299998 -1.646 0.2
8.5559998 -1.0089999 -1.6440001 0.20999999
8.5570002 -1.036 -1.645 0.12
8.5550003 -1.064 -1.646 0.20999999
8.5500002 -1.104 -1.646 0.2
8.5410004 -1.13 -1.6440001 0.23999999
8.5410004 -1.1569999 -1.645 0.27000001
8.5279999 -1.183 -1.643 0.2
8.5200005 -1.209 -1.642 0.20999999
8.5380001 -1.239 -1.647 0.27000001
8.5240002 -1.2640001 -1.645 0.20999999
8.54 -1.28 -1.648 0.28
8.5489998 -1.309 -1.651 0.25
8.5410004 -1.336 -1.65 0.28999999
8.533 -1.362 -1.65 0.28999999
8.5380001 -1.39 -1.652 0.28
8.5340004 -1.4170001 -1.652 0.30000001
8.5389996 -1.4450001 -1.654 0.25999999
8.5419998 -1.474 -1.655 0.41
8.54 -1.487 -1.655 0.33000001
8.5410004 -1.515 -1.656 0.36000001
8.54 -1.5420001 -1.6569999 0.36000001
8.5410004 -1.5700001 -1.658 0.38
8.5209999 -1.594 -1.655 0.41
8.5150003 -1.6210001 -1.655 0.38999999
8.4750004 -1.655 -1.648 0.23
8.368 -1.661 -1.627 0.22
8.2510004 -1.664 -1.604 0.25
8.1230001 -1.664 -1.5779999 0.28999999
8.0380001 -1.673 -1.561 0.28999999
7.9580002 -1.682 -1.545 0.30000001
7.9429998 -1.705 -1.543 0.25
7.948 -1.719 -1.545 0.27000001
7.9369998 -1.743 -1.544 0.27000001
7.9330001 -1.768 -1.544 0.25999999
7.9310002 -1.794 -1.545 0.27000001
7.9980001 -1.836 -1.5599999 0.41
7.9959998 -1.862 -1.561 0.34999999
8.0150003 -1.893 -1.566 0.28999999
8.0349998 -1.911 -1.571 0.25
8.0290003 -1.936 -1.571 0.44
8.0209999 -1.961 -1.571 0.27000001
8.0319996 -1.99 -1.574 0.34999999
8.04 -2.02 -1.5779999 0.28999999
8.1160002 -2.066 -1.595 0.30000001
8.1210003 -2.0940001 -1.597 0.27000001
8.0900002 -2.1270001 -1.5930001 0.38
8.0600004 -2.1459999 -1.5880001 0.23
8.1120005 -2.188 -1.601 0.25
8.1280003 -2.2190001 -1.605 0.38
8.0959997 -2.2379999 -1.6 0.30000001
8.1459999 -2.279 -1.612 0.27000001
8.1350002 -2.3039999 -1.6109999 0.38999999
8.1429996 -2.3199999 -1.614 0.25
8.1630001 -2.3540001 -1.62 0.31
8.1730003 -2.3840001 -1.624 0.30000001
8.1479998 -2.405 -1.62 0.28999999
8.1309996 -2.428 -1.618 0.28999999
8.1540003 -2.4619999 -1.624 0.30000001
8.1499996 -2.4890001 -1.625 0.28
8.1479998 -2.503 -1.626 0.31
8.1470003 -2.5309999 -1.627 0.28
8.1499996 -2.5599999 -1.63 0.34999999
8.1309996 -2.582 -1.627 0.30000001
8.1059999 -2.602 -1.624 0.31
8.0959997 -2.6270001 -1.623 0.28999999
8.0690002 -2.6600001 -1.62 0.28999999
7.9439998 -2.6459999 -1.595 0.2
7.9200001 -2.6659999 -1.591 0.23
7.8790002 -2.6789999 -1.584 0.20999999
7.8280001 -2.6889999 -1.575 0.25999999
7.7399998 -2.6860001 -1.558 0.19
7.6830001 -2.6930001 -1.5470001 0.23
7.6139998 -2.6819999 -1.533 0.23999999
7.5139999 -2.6730001 -1.513 0.18000001
7.395 -2.6559999 -1.489 0.2
7.316 -2.654 -1.474 0.16
7.2709999 -2.6630001 -1.465 0.029999999
0 0 0 0
8.0170002 -2.997 -1.633 0
8.0539999 -3.0250001 -1.642 0
8.0059996 -3.036 -1.6339999 0.23
8.059 -3.085 -1.647 0.28999999
8.066 -3.1170001 -1.651 0.27000001
8.0170002 -3.1270001 -1.642 0.31
8.033 -3.1619999 -1.648 0.25
8.0209999 -3.187 -1.648 0.28
8.0880003 -3.2579999 -1.666 0.31999999
8.0319996 -3.2639999 -1.656 0.28
8.04 -3.2969999 -1.66 0.44
7.974 -3.299 -1.647 0.19
7.9829998 -3.332 -1.652 0.23
7.9710002 -3.3570001 -1.651 0.31999999
7.9689999 -3.3859999 -1.653 0.44
7.9499998 -3.392 -1.65 0.37
7.9330001 -3.415 -1.649 0.27000001
7.9299998 -3.4430001 -1.65 0.27000001
7.9569998 -3.484 -1.659 0.28999999
7.9460001 -3.5090001 -1.659 0.30000001
7.895 -3.516 -1.65 0.37
7.8699999 -3.5350001 -1.647 0.31999999
7.902 -3.5639999 -1.655 0.38999999
7.882 -3.585 -1.653 0.34
7.895 -3.6210001 -1.659 0.25
7.9569998 -3.6800001 -1.675 0.28999999
7.9330001 -3.6989999 -1.673 0.25999999
7.9330001 -3.73 -1.675 0.36000001
7.8909998 -3.7550001 -1.67 0.28
7.888 -3.7839999 -1.6720001 0.25999999
7.8390002 -3.7909999 -1.663 0.28
7.802 -3.803 -1.658 0.30000001
7.796 -3.8310001 -1.659 0.40000001
7.7909999 -3.859 -1.661 0.27000001
7.7839999 -3.8859999 -1.6619999 0.23999999
7.7849998 -3.901 -1.663 0.31999999
7.7810001 -3.9300001 -1.665 0.25
7.7719998 -3.9560001 -1.666 0.28
7.7680001 -3.9849999 -1.668 0.27000001
7.7329998 -3.9979999 -1.663 0.25
7.6960001 -4.0100002 -1.6569999 0.22
7.7010002 -4.0430002 -1.661 0.27000001
7.645 -4.0279999 -1.65 0.23999999
7.6339998 -4.053 -1.65 0.23
7.5159998 -4.02 -1.626 0.2
7.487 -4.0359998 -1.622 0.11
7.4510002 -4.046 -1.6160001 0.2
7.4429998 -4.072 -1.617 0.12
7.3979998 -4.0780001 -1.61 0.25999999
7.4099998 -4.1149998 -1.6160001 0.2
7.381 -4.1440001 -1.613 0.19
7.3470001 -4.1560001 -1.609 0.25
7.3070002 -4.1630001 -1.602 0.20999999
7.2680001 -4.171 -1.596 0.23999999
7.2160001 -4.1719999 -1.587 0.27000001
7.164 -4.1560001 -1.576 0.2
7.119 -4.1599998 -1.568 0.25999999
7.0650001 -4.158 -1.559 0.27000001
7.0170002 -4.1589999 -1.55 0.25999999
6.9699998 -4.1609998 -1.5420001 0.27000001
6.8829999 -4.138 -1.525 0.23999999
6.8249998 -4.132 -1.5140001 0.25
6.744 -4.1259999 -1.499 0.14
0 0 0 0
6.704 -4.131 -1.492 0.039999999
0 0 0 0
0 0 0 0
7.2540002 -4.5669999 -1.636 0
7.243 -4.592 -1.636 0.31
7.2519999 -4.6300001 -1.642 0.2
7.2069998 -4.6490002 -1.636 0.28999999
7.204 -4.6789999 -1.6390001 0.25
7.1550002 -4.6789999 -1.631 0.33000001
7.0830002 -4.664 -1.617 0.28999999
7.0960002 -4.704 -1.624 0.28999999
7.099 -4.7389998 -1.628 0.25
7.0339999 -4.7119999 -1.614 0.33000001
7.0679998 -4.7670002 -1.626 0.34
7.026 -4.77 -1.619 0.40000001
6.9949999 -4.7810001 -1.615 0.34999999
6.9590001 -4.7880001 -1.61 0.23999999
6.9180002 -4.7919998 -1.603 0.27000001
6.9109998 -4.8200002 -1.605 0.23
6.8439999 -4.789 -1.591 0.28
6.8369999 -4.816 -1.5930001 0.25999999
6.8759999 -4.8759999 -1.6059999 0.28
6.835 -4.8790002 -1.6 0.28999999
6.8070002 -4.8920002 -1.597 0.38999999
6.809 -4.9260001 -1.601 0.34999999
6.7519999 -4.9169998 -1.591 0.31
6.7049999 -4.915 -1.582 0.25999999
6.6570001 -4.928 -1.576 0.27000001
6.631 -4.9400001 -1.573 0.31999999
6.6100001 -4.9580002 -1.572 0.28999999
6.6069999 -4.9879999 -1.575 0.25
6.6069999 -5.02 -1.579 0.44999999
6.6009998 -5.0320001 -1.58 0.23
6.572 -5.0430002 -1.576 0.16
6.572 -5.0760002 -1.58 0.22
6.5809999 -5.1160002 -1.587 0.19
6.5650001 -5.1360002 -1.587 0.22
6.5580001 -5.164 -1.589 0.20999999
6.5170002 -5.165 -1.5829999 0.25
6.4790001 -5.1690001 -1.577 0.16
0 0 0 0
6.414 -5.1659999 -1.566 0.28999999
6.3959999 -5.1849999 -1.566 0.27000001
6.4949999 -5.2989998 -1.597 0.23999999
6.434 -5.283 -1.585 0.2
6.4429998 -5.3249998 -1.592 0.11
6.3909998 -5.3319998 -1.585 0.31999999
6.355 -5.336 -1.579 0.13
6.362 -5.3759999 -1.586 0.19
6.3210001 -5.3759999 -1.579 0.20999999
6.362 -5.4460001 -1.595 0.36000001
6.2740002 -5.4039998 -1.576 0.14
6.2639999 -5.4299998 -1.5779999 0.18000001
6.2839999 -5.4640002 -1.585 0.19
6.2680001 -5.4850001 -1.586 0.20999999
6.2509999 -5.5050001 -1.586 0.11
6.276 -5.5630002 -1.597 0.30000001
6.223 -5.5510001 -1.5880001 0.25999999
6.1160002 -5.4889998 -1.563 0.20999999
6.0640001 -5.494 -1.556 0.18000001
6.0469999 -5.513 -1.556 0.20999999
6.0219998 -5.5250001 -1.554 0.18000001
0 0 0 0
6.006 -5.546 -1.554 0.1
6.007 -5.5819998 -1.559 0.2
5.9840002 -5.5949998 -1.558 0.19
5.9619999 -5.6269999 -1.559 0.19
5.9299998 -5.6329999 -1.5549999 0.11
5.9039998 -5.6430001 -1.552 0.20999999
5.8800001 -5.6560001 -1.551 0.12
5.8460002 -5.658 -1.546 0.20999999
5.8099999 -5.6589999 -1.541 0.25
5.776 -5.6620002 -1.536 0.2
5.7519999 -5.6560001 -1.5319999 0.25
5.7140002 -5.6529999 -1.526 0.2
5.6880002 -5.6630001 -1.523 0.23
6.0510001 6.0240002 -1.709 0.28999999
6.0619998 5.9959998 -1.707 0.28999999
6.0900002 5.987 -1.71 0.31
6.092 5.9510002 -1.705 0.28999999
6.1139998 5.9349999 -1.705 0.28999999
6.1290002 5.9310002 -1.707 0.30000001
6.1290002 5.8940001 -1.702 0.30000001
6.1500001 5.8769999 -1.702 0.30000001
6.1659999 5.855 -1.702 0.31999999
6.1700001 5.822 -1.697 0.31999999
6.1939998 5.8080001 -1.699 0.34999999
6.1950002 5.7729998 -1.694 0.34
6.1999998 5.7589998 -1.693 0.28
6.2379999 5.7579999 -1.699 0.33000001
6.2389998 5.7220001 -1.694 0.28999999
6.2550001 5.7020001 -1.693 0.31
6.2820001 5.6900001 -1.696 0.34
6.277 5.6490002 -1.689 0.33000001
6.29 5.625 -1.688 0.31
6.3210001 5.5999999 -1.689 0.34
6.322 5.5650001 -1.684 0.34
6.3590002 5.5619998 -1.6900001 0.34999999
6.3499999 5.5190001 -1.682 0.27000001
6.3740001 5.506 -1.684 0.36000001
6.3870001 5.4819999 -1.683 0.28
6.3969998 5.473 -1.684 0.30000001
6.401 5.441 -1.6799999 0.33000001
6.4120002 5.4159999 -1.678 0.30000001
6.4439998 5.4089999 -1.682 0.36000001
6.448 5.3769999 -1.679 0.28999999
6.4650002 5.3569999 -1.679 0.31
6.4780002 5.3340001 -1.678 0.31999999
6.4899998 5.3099999 -1.676 0.30000001
6.5 5.3010001 -1.677 0.30000001
6.5139999 5.2779999 -1.676 0.28999999
6.526 5.2540002 -1.675 0.30000001
6.5479999 5.2379999 -1.676 0.30000001
6.5630002 5.2160001 -1.676 0.28999999
6.5710001 5.1880002 -1.674 0.31
6.5840001 5.165 -1.673 0.28
6.625 5.1469998 -1.677 0.31
6.638 5.1240001 -1.676 0.30000001
6.6539998 5.1030002 -1.676 0.28999999
6.6700001 5.0819998 -1.676 0.28
6.6830001 5.059 -1.676 0.28
6.6960001 5.0359998 -1.675 0.28999999
6.7049999 5.026 -1.675 0.30000001
6.7179999 5.0029998 -1.674 0.28999999
6.73 4.9790001 -1.674 0.27000001
6.743 4.9559999 -1.673 0.28999999
6.744 4.9239998 -1.669 0.27000001
6.7690001 4.9099998 -1.671 0.30000001
6.7810001 4.8699999 -1.668 0.28999999
6.796 4.849 -1.668 0.28
0 0 0 0
6.8109999 4.8270001 -1.668 0.30000001
6.8150001 4.7979999 -1.666 0.28
6.8340001 4.7789998 -1.666 0.28999999
6.8410001 4.7519999 -1.664 0.28999999
6.8499999 4.71 -1.661 0.30000001
6.8569999 4.6830001 -1.659 0.28999999
6.868 4.6599998 -1.658 0.34
6.8699999 4.6290002 -1.655 0.28999999
6.8839998 4.6079998 -1.655 0.28999999
6.8909998 4.5809999 -1.653 0.31
6.9029999 4.5580001 -1.652 0.31999999
6.9070001 4.5450001 -1.651 0.31
6.915 4.5190001 -1.65 0.34999999
6.9130001 4.4860001 -1.645 0.30000001
6.915 4.4569998 -1.642 0.30000001
6.921 4.4299998 -1.64 0.28999999
6.9380002 4.4099998 -1.641 0.38
6.9310002 4.375 -1.636 0.47
6.9390001 4.3499999 -1.6339999 0.41
6.9429998 4.3369999 -1.6339999 0.43000001
6.9549999 4.3140001 -1.633 0.38999999
6.9679999 4.2919998 -1.633 0.41
6.9819999 4.27 -1.633 0.27000001
7 4.2509999 -1.6339999 0.23999999
7.0370002 4.244 -1.64 0.33000001
7.0219998 4.1890001 -1.632 0.31999999
7.04 4.1700001 -1.633 0.31999999
7.0450001 4.1430001 -1.631 0.34999999
7.0489998 4.1160002 -1.6289999 0.36000001
7.0549998 4.0900002 -1.627 0.34
7.0749998 4.072 -1.6289999 0.30000001
7.0929999 4.052 -1.63 0.38999999
7.092 4.0370002 -1.628 0.31999999
7.1149998 4.0209999 -1.631 0.33000001
7.1240001 3.9960001 -1.63 0.33000001
7.1420002 3.977 -1.631 0.28999999
7.1589999 3.957 -1.632 0.37
7.1680002 3.9330001 -1.632 0.31999999
7.1760001 3.908 -1.63 0.33000001
7.197 3.8759999 -1.631 0.33000001
0 0 0 0
7.211 3.8540001 -1.632 0.31999999
7.2220001 3.8299999 -1.631 0.34999999
7.2350001 3.809 -1.632 0.31
7.2579999 3.7909999 -1.6339999 0.36000001
7.2719998 3.7550001 -1.633 0.30000001
7.2989998 3.74 -1.637 0.38
7.2880001 3.7060001 -1.632 0.33000001
7.302 3.684 -1.632 0.33000001
7.322 3.665 -1.6339999 0.28999999
7.3460002 3.648 -1.637 0.37
7.3410001 3.6170001 -1.633 0.28999999
7.3629999 3.6140001 -1.637 0.38999999
7.3569999 3.582 -1.633 0.34
7.3660002 3.5580001 -1.632 0.34999999
7.3860002 3.539 -1.6339999 0.31999999
7.402 3.5179999 -1.636 0.31999999
7.4130001 3.4949999 -1.636 0.28999999
7.4310002 3.4749999 -1.637 0.34
7.4499998 3.441 -1.638 0.31
7.4640002 3.4189999 -1.6390001 0.37
0 0 0 0
7.46 3.3889999 -1.635 0.31999999
7.4619999 3.362 -1.633 0.28999999
7.4850001 3.3440001 -1.636 0.34
7.5009999 3.323 -1.637 0.34999999
7.513 3.286 -1.637 0.31999999
7.5289998 3.2639999 -1.638 0.36000001
7.5320001 3.2379999 -1.636 0.31999999
7.5489998 3.217 -1.638 0.36000001
7.5450001 3.187 -1.6339999 0.31999999
7.553 3.1630001 -1.6339999 0.33000001
7.5679998 3.141 -1.635 0.31999999
7.5770001 3.131 -1.636 0.31999999
7.5900002 3.109 -1.637 0.31999999
7.5999999 3.085 -1.637 0.33000001
7.6079998 3.0599999 -1.637 0.33000001
7.6100001 3.033 -1.635 0.36000001
7.625 3.0109999 -1.636 0.33000001
7.6339998 2.9879999 -1.636 0.31999999
7.6589999 2.9560001 -1.6390001 0.31
7.6760001 2.934 -1.64 0.38999999
7.6700001 2.905 -1.637 0.34999999
0 0 0 0
7.6739998 2.8789999 -1.636 0.31999999
7.6869998 2.8559999 -1.637 0.33000001
7.684 2.8280001 -1.6339999 0.30000001
7.7069998 2.7950001 -1.636 0.31999999
7.7160001 2.77 -1.636 0.31999999
7.7189999 2.744 -1.635 0.33000001
7.7259998 2.7190001 -1.6339999 0.31999999
7.7340002 2.6949999 -1.6339999 0.31
7.7519999 2.674 -1.637 0.38
7.7600002 2.6630001 -1.637 0.34
7.7659998 2.638 -1.637 0.34
7.7709999 2.612 -1.636 0.34999999
7.7839999 2.5899999 -1.637 0.34999999
7.7849998 2.563 -1.636 0.31999999
7.7820001 2.5350001 -1.633 0.36000001
7.7950001 2.5120001 -1.6339999 0.33000001
7.8200002 2.48 -1.637 0.34
7.8280001 2.4549999 -1.637 0.34
7.836 2.4300001 -1.637 0.34
7.8559999 2.4100001 -1.64 0.34999999
0 0 0 0
7.8449998 2.3789999 -1.636 0.31
7.8660002 2.345 -1.638 0.31999999
7.8839998 2.3239999 -1.641 0.41
7.8800001 2.296 -1.638 0.28999999
7.8850002 2.27 -1.638 0.33000001
7.9039998 2.2490001 -1.64 0.33000001
7.915 2.2249999 -1.641 0.30000001
7.9250002 2.201 -1.642 0.38999999
7.9169998 2.1860001 -1.64 0.33000001
7.921 2.1600001 -1.6390001 0.34999999
7.9330001 2.1359999 -1.64 0.30000001
7.947 2.1129999 -1.642 0.37
7.9580002 2.089 -1.642 0.30000001
7.9720001 2.066 -1.6440001 0.36000001
7.9629998 2.0369999 -1.641 0.31
7.9710002 1.999 -1.64 0.30000001
7.9959998 1.979 -1.645 0.36000001
7.994 1.952 -1.643 0.28
8.0100002 1.929 -1.645 0.30000001
8.0120001 1.903 -1.6440001 0.31999999
0 0 0 0
8.0179996 1.878 -1.6440001 0.34999999
8.0270004 1.84 -1.6440001 0.28
8.0360003 1.816 -1.645 0.34
8.0480003 1.7920001 -1.646 0.36000001
8.0459995 1.765 -1.645 0.31999999
8.0489998 1.739 -1.6440001 0.28999999
8.0679998 1.717 -1.647 0.36000001
8.0559998 1.688 -1.643 0.31
8.0690002 1.677 -1.645 0.36000001
8.0620003 1.649 -1.643 0.28999999
8.0869999 1.628 -1.647 0.34
8.0839996 1.601 -1.645 0.34
8.0830002 1.575 -1.6440001 0.37
8.0860004 1.549 -1.6440001 0.30000001
8.1009998 1.512 -1.645 0.34999999
8.1000004 1.4859999 -1.6440001 0.34999999
8.099 1.459 -1.643 0.28
8.1009998 1.433 -1.642 0.33000001
8.1160002 1.41 -1.645 0.34
8.1219997 1.3839999 -1.645 0.34
0 0 0 0
8.1239996 1.358 -1.645 0.34
8.125 1.319 -1.643 0.31999999
8.1520004 1.2970001 -1.648 0.34
8.1520004 1.271 -1.648 0.47
8.158 1.2460001 -1.648 0.52999997
8.1660004 1.221 -1.649 0.28999999
8.1619997 1.194 -1.647 0.46000001
8.1680002 1.169 -1.648 0.36000001
8.1750002 1.1569999 -1.649 0.27000001
8.1730003 1.13 -1.648 0.20999999
8.2040005 1.108 -1.653 0.34999999
8.1920004 1.08 -1.65 0.31
8.2069998 1.056 -1.653 0.28999999
8.2209997 1.0319999 -1.655 0.31
8.2290001 1.007 -1.656 0.31
8.2250004 0.96700001 -1.654 0.28999999
8.2460003 0.94300002 -1.658 0.34
8.2469997 0.917 -1.658 0.28
8.257 0.89200002 -1.659 0.31
8.2559996 0.86500001 -1.658 0.30000001
8.2589998 0.83999997 -1.658 0.28999999
8.2720003 0.82800001 -1.661 0.31999999
8.2629995 0.801 -1.658 0.28999999
8.2749996 0.77600002 -1.661 0.25999999
8.2869997 0.75 -1.663 0.31
8.2950001 0.72500002 -1.664 0.30000001
8.2980003 0.699 -1.664 0.30000001
8.3039999 0.67299998 -1.665 0.31999999
8.276 0.65799999 -1.658 0.30000001
8.2869997 0.63200003 -1.661 0.28999999
8.283 0.60600001 -1.659 0.25999999
8.2849998 0.57999998 -1.659 0.33000001
8.283 0.55400002 -1.658 0.28999999
8.302 0.52899998 -1.6619999 0.28999999
8.2770004 0.48800001 -1.656 0.28999999
8.2810001 0.46200001 -1.6569999 0.28999999
8.2779999 0.43599999 -1.656 0.33000001
8.2679996 0.40900001 -1.653 0.28999999
8.2670002 0.38299999 -1.653 0.31999999
8.276 0.35800001 -1.655 0.34
8.2620001 0.331 -1.651 0.31
8.2519999 0.317 -1.649 0.33000001
8.2589998 0.292 -1.65 0.31999999
8.2480001 0.26499999 -1.648 0.33000001
8.2489996 0.23999999 -1.648 0.36000001
8.2519999 0.214 -1.648 0.30000001
8.2559996 0.18799999 -1.649 0.31999999
8.2629995 0.162 -1.65 0.34
8.2709999 0.13600001 -1.652 0.34999999
8.2650003 0.123 -1.651 0.31
8.2720003 0.097000003 -1.652 0.34999999
8.2620001 0.071000002 -1.65 0.31999999
8.2620001 0.045000002 -1.65 0.28999999
8.2740002 0.018999999 -1.653 0.34
8.2819996 -0.0070000002 -1.654 0.34
8.2860003 -0.046 -1.655 0.33000001
8.2880001 -0.071999997 -1.655 0.34
8.283 -0.097999997 -1.655 0.36000001
8.2670002 -0.124 -1.651 0.31
8.2810001 -0.15000001 -1.654 0.36000001
8.2799997 -0.176 -1.654 0.28999999
8.2869997 -0.20200001 -1.656 0.36000001
8.283 -0.215 -1.655 0.30000001
8.2919998 -0.241 -1.6569999 0.34999999
8.276 -0.26699999 -1.654 0.31999999
8.2849998 -0.29300001 -1.656 0.30000001
8.2880001 -0.31900001 -1.6569999 0.36000001
8.2849998 -0.345 -1.656 0.30000001
8.2969999 -0.37200001 -1.659 0.34
8.2959995 -0.398 -1.659 0.31999999
8.3070002 -0.41100001 -1.6619999 0.34
8.302 -0.43700001 -1.661 0.34999999
8.3000002 -0.463 -1.661 0.27000001
8.3149996 -0.49000001 -1.664 0.33000001
8.3030005 -0.51599997 -1.6619999 0.31999999
8.3129997 -0.54299998 -1.665 0.30000001
8.3109999 -0.56900001 -1.665 0.28999999
8.3240004 -0.60900003 -1.668 0.28999999
8.342 -0.63700002 -1.6720001 0.34
8.3179998 -0.66100001 -1.668 0.31
8.3179998 -0.68800002 -1.668 0.28
8.3280001 -0.71499997 -1.671 0.31
8.3269997 -0.741 -1.671 0.31999999
8.3260002 -0.75400001 -1.671 0.28999999
8.3319998 -0.78100002 -1.673 0.30000001
8.3310003 -0.80699998 -1.673 0.31999999
8.3269997 -0.833 -1.673 0.28999999
8.3120003 -0.85799998 -1.67 0.28999999
8.3109999 -0.88499999 -1.671 0.28
8.316 -0.91100001 -1.6720001 0.28999999
8.323 -0.92500001 -1.674 0.33000001
8.3059998 -0.94999999 -1.671 0.27000001
8.3149996 -0.977 -1.674 0.31999999
8.302 -1.002 -1.671 0.33000001
8.3070002 -1.029 -1.673 0.31
8.2969999 -1.0549999 -1.6720001 0.31999999
8.2869997 -1.0930001 -1.671 0.34
8.2749996 -1.118 -1.669 0.30000001
8.2639999 -1.143 -1.6670001 0.31
8.2600002 -1.169 -1.6670001 0.31999999
8.2620001 -1.196 -1.668 0.31999999
8.2639999 -1.223 -1.67 0.33000001
8.2609997 -1.249 -1.67 0.31999999
8.2620001 -1.262 -1.671 0.33000001
8.2600002 -1.288 -1.671 0.36000001
8.2539997 -1.314 -1.671 0.28999999
8.2639999 -1.342 -1.674 0.34999999
8.2650003 -1.369 -1.675 0.34999999
8.2670002 -1.396 -1.676 0.37
8.2469997 -1.419 -1.673 0.31
8.2659998 -1.436 -1.677 0.37
8.2589998 -1.461 -1.677 0.31999999
8.3009996 -1.4960001 -1.687 0.44999999
8.2880001 -1.52 -1.6849999 0.43000001
8.2740002 -1.544 -1.683 0.40000001
8.2309999 -1.563 -1.675 0.47
8.21 -1.586 -1.671 0.38999999
8.2010002 -1.625 -1.671 0.36000001
8.1569996 -1.643 -1.663 0.25
8.0539999 -1.649 -1.641 0.28999999
7.9530001 -1.654 -1.62 0.31999999
7.8410001 -1.6569999 -1.597 0.30000001
7.7480001 -1.663 -1.577 0.38999999
7.7010002 -1.666 -1.568 0.36000001
7.6880002 -1.688 -1.566 0.34
7.6830001 -1.712 -1.566 0.34
7.6849999 -1.738 -1.568 0.31999999
7.6760001 -1.762 -1.567 0.28999999
7.6849999 -1.789 -1.5700001 0.34
7.7620001 -1.832 -1.5880001 0.44999999
7.777 -1.862 -1.5930001 0.38
7.7360001 -1.865 -1.585 0.36000001
7.6939998 -1.88 -1.577 0.34999999
7.7350001 -1.916 -1.587 0.36000001
7.7259998 -1.9400001 -1.586 0.40000001
7.6929998 -1.957 -1.58 0.31999999
7.723 -1.99 -1.5880001 0.43000001
7.7020001 -2.0239999 -1.586 0.25999999
7.7030001 -2.05 -1.587 0.30000001
7.7020001 -2.076 -1.589 0.34
7.7649999 -2.119 -1.604 0.38999999
7.717 -2.132 -1.595 0.43000001
7.7199998 -2.1589999 -1.597 0.28999999
7.822 -2.2130001 -1.6210001 0.36000001
7.7399998 -2.204 -1.604 0.34
7.8179998 -2.2520001 -1.623 0.27000001
7.902 -2.303 -1.643 0.36000001
7.8990002 -2.329 -1.6440001 0.38999999
7.9029999 -2.3570001 -1.647 0.27000001
7.9089999 -2.3859999 -1.65 0.44
7.888 -2.4070001 -1.647 0.34
7.9029999 -2.425 -1.651 0.30000001
7.8499999 -2.4360001 -1.641 0.47
7.835 -2.4579999 -1.6390001 0.30000001
7.8610001 -2.493 -1.647 0.27000001
7.8140001 -2.5050001 -1.638 0.38
7.7670002 -2.517 -1.6289999 0.31999999
7.7399998 -2.536 -1.625 0.27000001
7.7940001 -2.5799999 -1.6390001 0.38999999
7.744 -2.605 -1.63 0.28
7.7140002 -2.6210001 -1.625 0.34
7.5570002 -2.595 -1.592 0.34999999
7.5570002 -2.622 -1.5930001 0.33000001
7.5599999 -2.6489999 -1.596 0.28999999
7.5949998 -2.688 -1.6059999 0.28999999
7.5450001 -2.684 -1.595 0.33000001
7.4720001 -2.6849999 -1.581 0.30000001
7.3959999 -2.684 -1.5650001 0.28999999
7.3169999 -2.6819999 -1.549 0.33000001
7.1999998 -2.665 -1.525 0.27000001
7.1259999 -2.6630001 -1.5089999 0.25999999
7.0739999 -2.6689999 -1.499 0.23999999
7.0289998 -2.665 -1.49 0.14
0 0 0 0
7.77 -2.9990001 -1.664 0
7.777 -3.03 -1.668 0.38999999
7.7659998 -3.0539999 -1.668 0.33000001
7.7449999 -3.0739999 -1.665 0.36000001
7.7249999 -3.0940001 -1.663 0.28999999
7.7740002 -3.1559999 -1.677 0.36000001
7.7649999 -3.181 -1.678 0.31999999
7.7319999 -3.1949999 -1.6720001 0.33000001
7.7249999 -3.221 -1.673 0.38
7.7259998 -3.25 -1.676 0.28
7.6890001 -3.263 -1.669 0.33000001
7.7049999 -3.2839999 -1.674 0.33000001
7.6630001 -3.2939999 -1.6670001 0.31
7.6630001 -3.323 -1.669 0.33000001
7.6360002 -3.3399999 -1.666 0.33000001
7.6170001 -3.3599999 -1.663 0.31999999
7.6059999 -3.3840001 -1.663 0.36000001
7.5879998 -3.405 -1.6619999 0.30000001
0 0 0 0
7.579 -3.444 -1.663 0.31999999
7.5580001 -3.4630001 -1.661 0.31999999
7.5539999 -3.49 -1.663 0.33000001
7.5479999 -3.516 -1.664 0.34
7.5409999 -3.5409999 -1.665 0.31999999
7.5240002 -3.562 -1.663 0.30000001
7.513 -3.5999999 -1.665 0.31999999
7.507 -3.6259999 -1.666 0.34
7.4879999 -3.6470001 -1.664 0.36000001
7.473 -3.668 -1.663 0.33000001
7.4689999 -3.6949999 -1.665 0.33000001
7.4640002 -3.7219999 -1.6670001 0.34
7.4720001 -3.7550001 -1.671 0.34999999
7.4710002 -3.77 -1.673 0.33000001
7.4640002 -3.796 -1.674 0.31999999
7.4650002 -3.825 -1.677 0.33000001
7.4510002 -3.848 -1.676 0.33000001
7.4530001 -3.878 -1.6799999 0.31999999
7.454 -3.9089999 -1.683 0.37
7.4369998 -3.9300001 -1.682 0.30000001
0 0 0 0
7.4400001 -3.977 -1.687 0.36000001
7.4369998 -4.0050001 -1.689 0.43000001
7.4190001 -4.0250001 -1.688 0.44
7.4109998 -4.0510001 -1.689 0.36000001
7.3969998 -4.0739999 -1.689 0.41
7.3390002 -4.072 -1.678 0.34
7.3099999 -4.1009998 -1.676 0.27000001
7.3379998 -4.1469998 -1.686 0.44999999
7.2870002 -4.1490002 -1.676 0.34
7.2420001 -4.1529999 -1.668 0.62
7.204 -4.1620002 -1.6619999 0.16
7.1059999 -4.1350002 -1.641 0.2
7.1090002 -4.152 -1.6440001 0.25
7.0840001 -4.1680002 -1.641 0.31
7.0630002 -4.1849999 -1.6390001 0.37
7.006 -4.1810002 -1.628 0.31999999
6.9580002 -4.1820002 -1.619 0.31999999
6.921 -4.1900001 -1.613 0.31
6.836 -4.1830001 -1.597 0.31999999
0 0 0 0
6.7779999 -4.177 -1.585 0.31999999
6.7329998 -4.1789999 -1.577 0.34
6.6700001 -4.1690001 -1.5650001 0.34
6.6020002 -4.1560001 -1.551 0.31
6.5440001 -4.1479998 -1.54 0.30000001
6.513 -4.1570001 -1.535 0.31
6.4510002 -4.1599998 -1.524 0.15000001
6.4239998 -4.1719999 -1.521 0.029999999
6.8979998 -4.5089998 -1.645 0
6.9840002 -4.5949998 -1.671 0
7.0040002 -4.6399999 -1.6799999 0.15000001
6.9749999 -4.652 -1.676 0.38
6.9439998 -4.6479998 -1.67 0.38999999
6.9380002 -4.6750002 -1.6720001 0.31999999
6.881 -4.6690001 -1.661 0.38
6.8390002 -4.671 -1.654 0.36000001
6.8210001 -4.691 -1.653 0.34
6.8109999 -4.7150002 -1.655 0.36000001
6.8140001 -4.7490001 -1.659 0.34
6.7480001 -4.7350001 -1.646 0.23999999
6.744 -4.7800002 -1.651 0.41999999
6.691 -4.7740002 -1.641 0.30000001
0 0 0 0
6.665 -4.7870002 -1.638 0.33000001
6.6149998 -4.783 -1.6289999 0.36000001
6.5970001 -4.8010001 -1.628 0.38
6.5139999 -4.789 -1.612 0.36000001
6.5019999 -4.8109999 -1.613 0.34999999
6.4679999 -4.8179998 -1.608 0.34999999
6.4569998 -4.842 -1.609 0.43000001
6.3940001 -4.8249998 -1.596 0.23999999
6.4180002 -4.875 -1.6059999 0.41
6.3940001 -4.8889999 -1.604 0.38999999
6.3870001 -4.8990002 -1.604 0.31999999
6.3260002 -4.8850002 -1.592 0.43000001
6.316 -4.908 -1.5930001 0.44999999
6.3060002 -4.9330001 -1.595 0.31
6.2800002 -4.9439998 -1.592 0.28
6.2859998 -4.9809999 -1.598 0.34999999
6.224 -4.98 -1.587 0.34
6.21 -5.0009999 -1.5880001 0.31999999
6.2129998 -5.0349998 -1.5930001 0.33000001
6.191 -5.0489998 -1.591 0.23999999
0 0 0 0
6.1849999 -5.0770001 -1.594 0.27000001
6.1659999 -5.0939999 -1.5930001 0.36000001
6.1500001 -5.1139998 -1.5930001 0.34999999
6.1170001 -5.1350002 -1.591 0.31999999
6.0799999 -5.1370001 -1.585 0.37
6.0370002 -5.1329999 -1.577 0.25
6.0609999 -5.1859999 -1.589 0.28999999
6.085 -5.2399998 -1.6 0.36000001
5.993 -5.1939998 -1.579 0.30000001
6.0409999 -5.2519999 -1.595 0.30000001
6.0570002 -5.2989998 -1.604 0.30000001
5.9720001 -5.2589998 -1.585 0.30000001
5.8969998 -5.2259998 -1.568 0.36000001
5.8889999 -5.2519999 -1.5700001 0.28999999
6.006 -5.3889999 -1.608 0.25999999
6.0250001 -5.4400001 -1.619 0.28
6.0100002 -5.4780002 -1.622 0.43000001
5.9219999 -5.4320002 -1.601 0.23999999
5.9219999 -5.467 -1.6059999 0.31
5.8969998 -5.4780002 -1.604 0.34999999
0 0 0 0
5.9120002 -5.526 -1.614 0.38999999
5.8839998 -5.5349998 -1.6109999 0.41
5.8649998 -5.553 -1.61 0.20999999
5.8410001 -5.5809999 -1.6109999 0.25999999
5.8239999 -5.6009998 -1.6109999 0.31999999
5.7719998 -5.586 -1.6 0.27000001
5.757 -5.6059999 -1.601 0.30000001
5.7410002 -5.6259999 -1.602 0.30000001
5.7550001 -5.6750002 -1.6109999 0.43000001
5.7309999 -5.6690001 -1.607 0.43000001
5.6989999 -5.6729999 -1.603 0.28999999
5.7859998 5.7820001 -1.699 0.30000001
5.8140001 5.756 -1.7 0.31
5.8280001 5.7340002 -1.699 0.28999999
5.849 5.7179999 -1.699 0.33000001
5.8569999 5.6900001 -1.696 0.28999999
5.8779998 5.6750002 -1.697 0.31999999
5.8969998 5.6570001 -1.698 0.28999999
5.9089999 5.6339998 -1.696 0.30000001
5.908 5.6149998 -1.693 0.33000001
5.927 5.598 -1.693 0.27000001
5.9429998 5.5780001 -1.693 0.34
5.9510002 5.5500002 -1.6900001 0.28999999
5.9710002 5.5339999 -1.691 0.34
5.9770002 5.5040002 -1.687 0.27000001
6.0029998 5.493 -1.6900001 0.33000001
6.0100002 5.4650002 -1.687 0.30000001
6.0250001 5.428 -1.684 0.28999999
0 0 0 0
6.0479999 5.414 -1.686 0.30000001
6.0650001 5.395 -1.686 0.30000001
6.079 5.3730001 -1.6849999 0.31999999
6.086 5.3449998 -1.682 0.31999999
6.1079998 5.3140001 -1.681 0.28
6.1269999 5.2969999 -1.682 0.34
6.1399999 5.2740002 -1.6799999 0.28
6.1609998 5.2589998 -1.682 0.31
6.165 5.2290001 -1.678 0.31999999
6.1890001 5.2160001 -1.6799999 0.28999999
6.198 5.1900001 -1.678 0.30000001
6.2119999 5.1859999 -1.6799999 0.28999999
6.2399998 5.1760001 -1.683 0.30000001
6.2379999 5.1420002 -1.678 0.28999999
6.2519999 5.119 -1.677 0.27000001
6.2800002 5.1100001 -1.681 0.30000001
6.2849998 5.0809999 -1.678 0.25
6.2930002 5.0549998 -1.676 0.28999999
6.3060002 5.0170002 -1.673 0.27000001
6.3189998 4.9949999 -1.6720001 0.27000001
0 0 0 0
6.3439999 4.9819999 -1.674 0.28999999
6.3579998 4.961 -1.674 0.28
6.3670001 4.9359999 -1.6720001 0.25
6.388 4.9039998 -1.671 0.27000001
6.3979998 4.8800001 -1.67 0.27000001
6.4099998 4.8579998 -1.669 0.25999999
6.415 4.8299999 -1.666 0.27000001
6.428 4.8080001 -1.666 0.25999999
6.4450002 4.789 -1.666 0.25999999
6.4510002 4.7620001 -1.663 0.27000001
6.473 4.7470002 -1.666 0.28999999
6.4699998 4.7290001 -1.663 0.30000001
6.4879999 4.711 -1.663 0.25999999
6.4949999 4.6849999 -1.661 0.28
6.5 4.658 -1.659 0.30000001
6.513 4.6360002 -1.658 0.28999999
6.5240002 4.6139998 -1.6569999 0.28
6.5310001 4.573 -1.653 0.28999999
6.5419998 4.5500002 -1.652 0.28999999
6.553 4.527 -1.652 0.31
6.5599999 4.5009999 -1.649 0.30000001
0 0 0 0
6.5689998 4.4770002 -1.648 0.28999999
6.572 4.4489999 -1.645 0.31
6.579 4.4089999 -1.642 0.31
6.5929999 4.388 -1.642 0.44
6.5840001 4.3530002 -1.636 0.44999999
6.5910001 4.3280001 -1.6339999 0.37
6.6059999 4.3080001 -1.6339999 0.37
6.6149998 4.2839999 -1.633 0.38999999
6.6199999 4.2579999 -1.631 0.38999999
6.6300001 4.25 -1.632 0.41
6.6389999 4.2259998 -1.63 0.38
6.6729999 4.2179999 -1.636 0.17
6.7010002 4.2069998 -1.64 0.28999999
6.7129998 4.1849999 -1.6390001 0.38999999
6.7030001 4.1490002 -1.633 0.25
6.711 4.1110001 -1.63 0.31
6.723 4.0890002 -1.63 0.34
6.7360001 4.0679998 -1.63 0.34
6.7459998 4.0450001 -1.6289999 0.34
6.757 4.0229998 -1.6289999 0.34
6.776 4.006 -1.631 0.34
0 0 0 0
6.789 3.984 -1.631 0.34
6.7989998 3.947 -1.6289999 0.28999999
6.8179998 3.9300001 -1.63 0.33000001
6.835 3.911 -1.632 0.33000001
6.8460002 3.8889999 -1.631 0.33000001
6.8610001 3.869 -1.632 0.34999999
6.8800001 3.8510001 -1.6339999 0.31999999
6.8860002 3.826 -1.632 0.34999999
6.8920002 3.8150001 -1.632 0.30000001
6.9099998 3.7969999 -1.6339999 0.31999999
6.9239998 3.777 -1.6339999 0.34
6.9310002 3.7520001 -1.633 0.34
6.9460001 3.7320001 -1.6339999 0.31
6.9679999 3.7160001 -1.636 0.34999999
6.9759998 3.6919999 -1.636 0.25
6.9829998 3.654 -1.633 0.27000001
7.007 3.638 -1.636 0.34999999
7.0149999 3.6140001 -1.635 0.31
7.0349998 3.596 -1.637 0.34999999
7.0339999 3.5680001 -1.6339999 0.27000001
0 0 0 0
7.0539999 3.5369999 -1.635 0.25999999
7.072 3.5179999 -1.637 0.34999999
7.0799999 3.494 -1.636 0.31999999
7.0900002 3.4719999 -1.636 0.34
7.105 3.451 -1.637 0.31999999
7.1069999 3.425 -1.635 0.33000001
7.125 3.4059999 -1.636 0.30000001
7.132 3.395 -1.637 0.31
7.1440001 3.3740001 -1.637 0.36000001
7.151 3.3499999 -1.636 0.25999999
7.165 3.329 -1.637 0.34
7.1739998 3.3050001 -1.637 0.31
7.1900001 3.2850001 -1.638 0.31999999
7.191 3.2590001 -1.636 0.31999999
7.2199998 3.2309999 -1.6390001 0.36000001
7.2160001 3.2019999 -1.636 0.30000001
7.2329998 3.1830001 -1.638 0.31
7.243 3.1600001 -1.638 0.33000001
7.2480001 3.135 -1.636 0.38
7.2509999 3.109 -1.635 0.30000001
7.2610002 3.0999999 -1.636 0.34
7.276 3.079 -1.637 0.36000001
7.2839999 3.056 -1.637 0.25
7.2969999 3.0339999 -1.638 0.36000001
7.2989998 3.0079999 -1.636 0.34999999
7.303 2.983 -1.635 0.27000001
